ply
format ascii 1.0
element vertex 1233
property float x
property float y
property float z
property uint8 red
property uint8 green
property uint8 blue
end_header
-2.269022 3.840935 1.740129 224 211 190
0.455739 4.753528 -5.549541 80 155 70
-2.880952 4.190954 0.568583 251 253 250
-4.749268 7.088321 1.055986 155 17 12
0.981736 8.091960 -0.928057 218 49 61
-0.957266 2.992100 -2.638526 253 253 250
-5.112757 3.857924 -1.904376 252 243 240
4.038742 18.224785 -7.023085 11 16 55
-2.247688 4.445179 0.682369 222 205 186
-5.011236 3.791541 -3.939614 61 136 50
-2.586914 6.134353 -3.472127 37 80 85
-1.667088 7.216222 -1.521041 0 0 0
-3.129285 44.203850 -30.620392 51 39 31
-4.721950 5.190608 -3.462342 253 248 245
0.639313 6.687751 0.029195 205 73 68
-3.699112 5.441673 -2.636023 243 229 242
-2.894375 7.876887 -2.780037 79 135 55
-6.688588 4.530774 -3.778015 103 173 79
-5.913712 6.562675 -1.313400 48 6 18
-7.533869 8.376799 -0.932386 100 168 66
-2.721419 6.413146 -3.417513 122 98 91
-1.170786 4.841137 -5.492671 106 171 68
2.260310 10.777358 -2.456739 136 228 63
-6.040930 10.082026 1.779682 117 15 31
-2.251909 6.007543 1.414797 0 2 1
1.785718 10.549448 -6.176261 249 195 146
0.903851 3.220648 -6.266864 52 114 52
-8.339362 11.141086 5.334643 76 144 59
-2.776851 6.362636 -3.438122 247 239 156
1.644780 10.571595 -2.543370 135 223 47
-2.808311 5.149579 0.440588 0 0 0
-7.933462 4.243214 -5.035344 77 141 56
-10.083127 8.606103 0.576970 93 166 62
-2.337606 4.802930 -3.390768 253 228 155
1.624214 9.440674 -1.618483 175 253 119
-9.598844 7.713035 -1.133953 65 135 50
-0.198860 3.213286 -2.699894 255 124 0
-3.053538 4.574276 0.591991 236 222 191
-4.910876 10.348568 2.164195 75 140 34
-2.649009 5.473026 -2.451947 98 165 68
-1.015512 4.415798 -5.926888 60 132 35
-3.259109 10.165069 2.277442 180 50 69
-6.557633 9.780787 -3.106788 223 9 36
-3.257320 3.402680 0.437092 8 20 18
4.531548 19.116566 -7.735602 86 28 6
0.697309 7.002537 -0.270894 200 182 144
-2.130181 5.054058 2.467531 34 10 0
-1.971011 7.891276 -3.463508 171 201 152
-0.985463 12.386787 -2.873293 11 7 4
-1.720442 4.750068 -5.478973 88 150 36
-2.652694 5.231083 -2.711125 42 30 74
-1.884048 5.148989 -5.313668 103 169 69
1.332803 8.480783 -0.901243 253 252 159
-5.277598 3.628764 -2.181111 255 234 255
2.447908 9.877504 3.883407 83 146 77
-0.772995 2.489198 -1.849375 239 132 20
-2.013408 4.191456 1.168628 226 203 172
-5.192927 6.272929 2.469048 239 208 190
-3.547374 16.278553 0.365464 173 192 153
-2.859469 3.844347 2.009095 195 197 194
-2.416678 4.706017 0.943310 90 70 201
-7.155332 9.986680 2.279642 100 163 81
-4.220902 11.082111 -0.223339 74 140 39
1.214101 7.636432 -4.271400 223 102 20
-5.005327 10.240564 2.168032 76 144 35
-4.249342 5.205873 -5.741591 73 141 55
-3.442879 10.189939 2.478913 254 218 142
1.545089 10.307889 1.437700 72 120 62
-3.357419 15.085184 1.535367 97 151 65
1.468306 5.990979 -0.404682 62 137 41
-3.324739 4.263156 -5.769862 70 140 42
0.854164 7.415558 -0.529496 152 108 111
-7.362169 13.363610 -2.155646 255 245 254
1.353915 10.078689 1.622989 124 184 102
-4.148548 5.137177 -5.634936 73 141 55
-6.117247 7.239555 -5.772235 246 147 37
0.912996 7.143573 -0.253164 114 46 53
-1.238164 9.994812 -2.075484 6 7 19
-2.777966 3.881959 -0.359828 101 81 51
0.651882 6.967992 -0.196997 230 30 53
-0.369832 3.023661 -1.993244 245 42 111
-5.584285 6.014240 -4.715073 250 154 46
-2.435372 4.384443 1.271963 179 12 13
-8.935761 4.224675 -4.163784 96 164 78
-8.596385 3.439882 -6.251297 56 120 44
-1.807557 10.828300 -2.942954 0 0 0
1.465251 6.006553 -0.404225 63 138 42
4.846904 8.073380 0.072042 95 164 59
-0.494710 16.921480 -6.790827 193 214 164
-5.160486 5.275137 -0.279393 23 45 106
-9.977155 8.676664 0.449426 74 141 44
-4.595870 4.505954 -4.157188 0 0 0
-1.888609 10.815409 -0.201421 10 24 45
-3.206322 19.942104 -11.889821 75 54 28
-5.709674 6.952450 -5.411500 207 84 3
-5.077017 6.427552 -0.928481 198 209 166
1.458620 8.296720 -1.308387 72 142 44
-3.273616 10.374125 2.357625 232 156 98
-2.965210 5.256672 1.448742 20 4 8
-2.042309 4.328580 0.887845 244 233 214
-0.847818 2.710150 -2.129656 249 134 25
-0.394005 8.976803 -0.673760 85 154 72
-10.196689 5.324199 -3.886258 61 126 45
-5.413477 5.031410 0.106004 100 85 50
-9.543030 4.387289 -5.257342 58 124 52
0.186224 6.777966 -0.067215 21 32 45
-10.196689 5.324199 -3.886258 61 126 45
1.808582 6.192687 0.058868 82 157 71
0.186224 6.777966 -0.067215 21 32 45
-2.171992 6.193139 1.636197 99 56 21
1.678524 6.509519 -0.920028 101 166 60
-0.596818 4.023898 -1.849718 246 135 38
-0.650095 4.426486 -2.522221 252 254 251
-2.110702 5.642371 0.660867 167 198 160
-1.980379 9.330548 -0.092272 68 139 49
-9.393713 10.222283 4.591894 83 155 73
-4.560546 10.366090 2.035110 78 148 47
-2.151412 4.711612 -1.282981 110 95 65
-6.034233 6.018948 -0.236675 174 74 94
-3.977533 5.650443 -5.323792 95 164 59
-2.165266 3.760943 1.511424 90 153 68
1.277221 4.820604 -5.170905 88 155 78
-3.294565 4.272184 1.768910 0 0 0
-4.558026 10.353782 2.036861 78 148 47
-4.400271 7.133972 -5.256277 253 244 236
-2.570550 4.610050 1.139958 49 7 33
-1.740886 7.691974 -3.262109 215 227 163
-7.409015 14.367799 -2.508860 245 191 216
-4.774955 3.588120 -1.526831 251 251 247
-1.429264 3.110286 0.946919 161 83 15
-9.385589 14.223256 -5.741058 174 173 138
-6.080764 9.605623 1.016139 73 142 44
-5.157199 4.951139 -3.404269 244 79 14
-2.699831 2.850278 -4.021330 108 171 58
-6.715628 11.977820 -1.873654 239 171 204
-1.328487 11.436418 -3.563346 173 188 159
-2.211302 2.983096 1.616293 175 175 175
-9.426856 6.206077 -3.089555 46 111 46
-2.987883 4.001092 0.272224 217 78 80
-8.738323 13.482142 -5.814119 111 34 5
-5.284493 4.957873 -3.156496 247 230 252
2.227525 8.298522 -0.952846 69 138 42
-3.892773 3.837291 -3.786317 72 142 44
-2.521448 5.937197 -3.478863 21 120 23
-3.311660 12.779185 1.920863 165 107 33
3.980872 17.318676 -6.474012 20 4 31
2.935669 10.565275 2.734627 92 168 63
-0.699522 10.483889 2.792727 83 148 40
2.227112 5.127757 -3.655180 76 150 71
-5.667757 5.871500 -0.731531 69 48 4
-6.345359 5.649559 -5.372272 51 126 42
0.283374 4.409051 -5.071735 146 99 28
-0.907374 12.528600 -3.749675 214 205 176
-3.679012 10.685980 3.123534 85 145 45
1.627515 5.744917 -4.563242 46 115 37
-3.245434 18.752674 0.278760 216 19 58
-5.649634 6.266485 -0.479892 149 27 31
0.283374 4.409051 -5.071735 146 99 28
-4.835934 5.506833 -5.165905 66 141 51
1.277221 4.820604 -5.170905 88 155 78
1.820493 6.298668 0.064259 84 160 69
-0.539637 10.970886 3.215626 104 171 68
0.662304 8.113389 -1.246789 88 156 54
-4.340986 10.121004 -6.885555 251 187 199
-1.064875 11.265939 -2.066876 32 2 0
-3.298430 11.329938 3.358454 91 163 68
1.907846 9.383776 1.125623 98 169 77
0.113886 10.580494 4.285247 68 138 51
-2.054946 4.137300 1.455208 160 199 146
1.916890 4.697450 -6.102952 91 163 64
-2.622040 3.291583 1.870809 7 1 1
-5.197321 9.601528 0.732808 97 164 63
-5.161653 4.023221 -2.288956 242 167 95
0.084303 10.807768 4.396374 68 138 51
-1.736012 5.767713 0.874049 0 0 0
2.856447 12.392363 -3.561027 223 1 53
-1.093228 4.214982 -5.877782 99 172 70
0.888250 8.335617 -1.109935 246 208 144
-4.979107 6.958426 -1.495650 2 24 35
-9.177372 9.521274 2.030601 64 135 41
0.874999 7.478142 -0.422151 247 202 150
-8.749911 11.219820 6.388495 82 152 65
-6.199557 11.441115 -0.142129 248 129 3
-5.069023 4.057808 -1.978266 246 157 61
-1.455807 3.120085 0.860545 17 38 45
-3.552519 3.064871 -4.127770 69 136 41
5.565784 10.501223 4.757867 68 131 68
1.839292 11.194729 5.025133 57 120 50
2.749872 10.653854 2.782489 94 169 69
-5.984773 10.446512 0.069819 249 250 252
-5.091984 10.485966 2.906691 94 161 56
-3.058594 4.291832 -2.401947 242 221 236
-5.273532 6.033173 1.838780 255 252 255
-6.048034 9.013732 -2.625033 138 197 59
-2.691430 2.361114 -4.350100 90 159 68
-2.557050 3.395179 0.083494 76 30 6
1.022185 10.696408 2.433248 71 140 51
-3.202319 15.036948 -8.118643 68 34 1
-7.277252 15.074330 -1.770688 236 134 14
-9.637935 8.269369 -1.746420 109 172 62
-9.267530 9.427112 2.137002 89 159 61
-5.080423 3.053978 -6.379088 84 153 65
-5.920788 11.150753 0.249082 248 236 254
0.551386 4.158549 -5.772143 44 110 40
-4.851455 5.777437 2.105314 241 185 227
0.414864 6.021992 -5.139771 110 173 91
-1.450385 9.211752 -1.690604 168 193 165
-3.240922 6.130981 -4.786134 76 146 48
-5.698178 4.766467 -2.730647 243 140 29
-4.891144 3.605667 0.702414 6 2 1
-7.505057 14.181170 -1.792267 248 195 228
-6.613107 12.406895 -1.150706 255 243 254
-5.520092 9.494277 0.936099 242 164 221
-3.956605 20.336102 -1.340115 189 25 60
-5.118861 8.940433 0.956124 242 164 221
-1.873881 3.787604 0.832267 0 0 0
3.109292 12.502814 -3.637256 215 4 44
1.850287 9.830018 -1.801587 145 215 50
-8.921174 5.890356 -2.943157 85 160 74
0.024663 5.568674 -3.478749 250 254 250
-1.500423 5.092606 -5.277820 106 171 66
1.850287 9.830018 -1.801587 145 215 50
-1.404032 8.236252 -2.190677 96 168 71
-5.334547 5.706329 -1.333746 0 0 0
-4.055634 5.944678 -2.620425 235 214 229
0.490054 8.341810 -1.421551 96 167 71
0.185858 4.047410 -3.343964 210 90 11
-3.591579 6.592912 -4.334471 96 168 71
-7.606512 3.794461 -5.888159 100 172 77
-6.288448 11.273726 0.424687 245 177 226
-4.771594 5.408459 2.590509 250 240 252
-2.462926 3.778056 1.519854 212 186 205
4.725502 8.417473 0.813605 53 130 41
-2.997980 2.189790 -0.948042 0 0 0
4.446067 19.013466 -7.393415 57 14 0
-2.582003 4.209418 -6.051309 100 170 74
-4.796219 5.390653 2.400794 240 194 226
4.523784 16.740137 -6.024022 251 148 24
-2.819506 16.030703 -3.653717 0 0 0
-4.704134 3.524580 0.487536 182 11 16
-3.171676 5.075715 -5.230538 95 164 73
4.528881 19.079254 -7.570396 254 162 10
-5.431986 4.722453 -2.909992 217 124 109
-2.053199 3.933566 1.290126 0 0 0
1.248299 7.890829 -0.604495 224 101 99
-6.611960 14.420914 -0.736415 243 172 79
-0.740259 3.136984 -2.663787 0 4 0
0.330819 5.603112 -2.611135 254 214 212
-4.267450 9.934725 0.934587 74 139 47
-4.839252 3.674182 -1.624607 248 252 249
4.820117 17.229660 -6.081269 198 110 33
4.799402 17.259253 -6.098154 84 40 0
-7.084487 11.267286 5.987889 56 127 40
1.350832 9.267850 -1.692318 222 157 50
-0.882689 11.245680 -2.258868 97 144 84
1.335759 8.846354 -1.175474 115 240 31
0.825635 7.947168 -0.849104 96 153 158
-3.216829 19.074097 0.043618 165 21 49
0.882242 7.509409 -0.404003 229 150 108
-1.702371 5.324581 -5.066583 69 141 42
-3.505172 6.499170 -1.946389 174 213 167
-3.736567 12.044901 1.333517 0 0 0
-6.264636 10.427554 1.945292 240 242 244
-5.230699 8.015849 2.300135 238 140 41
-4.055681 12.137059 0.910363 34 91 71
-3.790341 5.955537 -5.016900 71 143 43
-1.340015 10.577299 2.770324 67 136 37
-1.717567 10.710760 3.134236 99 167 62
0.737106 10.574763 4.131719 47 114 44
2.064274 10.248476 4.251552 51 113 47
1.718639 4.746441 -1.560684 95 162 68
-9.535170 3.996717 -5.817831 85 152 73
-6.234483 5.533822 -4.954118 112 180 85
1.724823 4.756248 -1.568301 95 162 68
2.098258 6.737061 -4.034547 232 158 72
3.641830 8.806137 0.270384 79 151 74
0.779881 10.548158 4.133827 33 76 32
-3.477841 10.637190 2.713621 114 174 71
-4.657508 5.871717 2.737391 251 247 244
1.688403 9.453659 -1.111578 231 231 174
-2.387178 3.030187 1.430495 172 173 176
-3.247662 3.521461 0.329961 0 0 1
3.907856 17.667831 -6.575943 108 12 18
-0.945661 11.865870 -2.678889 151 187 143
1.144685 8.205974 -0.885172 93 49 56
-3.125939 7.822954 -3.000958 152 187 137
1.658167 11.348899 -2.940779 0 65 204
0.896250 8.328215 -1.109710 251 234 133
-6.988778 14.176036 -0.666200 235 140 55
-3.372286 9.480648 2.842025 136 46 59
4.517210 19.826992 -8.083770 90 28 7
2.064367 11.424677 -3.046370 143 131 33
1.259898 9.266109 -1.689013 216 249 113
1.008804 8.246854 -1.086064 244 225 144
-3.199389 6.066190 -5.040795 80 146 45
0.225920 6.504593 0.208525 23 38 29
-3.060079 7.457816 -1.977743 57 51 45
-7.757167 6.299823 -3.992108 98 163 78
-1.938721 4.909662 -0.061543 155 173 197
-5.497187 10.037829 0.933177 241 165 183
-2.652103 6.909471 -0.126749 125 167 109
0.868395 6.872818 -4.333527 252 139 16
-1.607935 3.772415 0.571757 255 251 247
-3.195855 3.746353 0.212601 250 216 147
-3.153059 44.409000 -30.788643 55 38 30
-2.126659 4.573496 0.236762 226 223 195
1.793906 10.329049 -2.170389 180 207 54
-6.401012 4.081574 -4.051079 52 127 43
0.055183 5.102483 -1.920239 255 225 252
-3.304115 7.870073 -4.948080 251 216 243
-5.971584 13.872375 -2.073993 0 0 0
-5.750944 4.515359 -3.618289 87 161 70
-4.851228 10.249447 1.855832 79 147 47
-4.061975 3.723393 -3.828483 81 156 53
-1.078949 10.630119 3.278924 89 151 37
-3.179149 8.105989 -6.291039 84 154 56
-6.658659 12.432281 -0.612898 250 197 131
-1.691006 3.382766 0.732499 219 187 126
-3.094577 3.928267 0.093763 237 216 204
-2.943184 4.677415 -0.668056 253 253 252
-3.015138 3.651092 0.404997 189 183 170
-3.242848 2.861468 0.948033 1 1 1
1.478919 9.318371 -5.487366 248 221 195
-0.277350 2.865757 -2.289855 246 206 243
-4.312497 9.059710 -0.238439 14 19 14
-0.424589 4.247832 -1.395535 249 240 242
4.830640 17.210152 -6.014718 51 15 5
1.865088 9.648225 -7.241150 253 155 29
-5.308713 4.920039 -0.388368 134 41 53
-5.061292 5.876439 -0.955513 236 216 123
-3.990612 5.105984 -5.733302 95 166 76
4.697505 17.009640 -6.034221 240 151 18
1.865088 9.648225 -7.241150 253 155 29
-1.285748 3.406855 0.901783 194 126 54
-6.511952 6.573197 -1.011984 222 210 168
-4.199338 5.385494 -5.466926 72 138 46
-1.526193 8.941615 -1.399143 76 148 49
4.255017 18.694223 -7.272739 243 196 36
1.106171 6.119043 -4.889210 58 103 48
-4.846421 5.647143 -0.671619 254 250 167
-1.888583 10.906901 4.922265 73 139 51
-0.931639 5.358806 -5.283324 115 170 54
0.835586 7.689162 -0.627772 253 246 176
-2.024699 5.437547 1.632128 0 2 1
0.774827 7.243964 -0.423772 254 247 166
-2.024699 5.437547 1.632128 0 2 1
0.881940 7.189997 -0.190843 255 223 53
0.551738 6.534924 0.175722 174 70 16
1.662056 9.226448 0.538440 88 162 71
0.593824 4.131463 -3.291773 252 146 28
-2.212319 9.597774 0.178274 65 133 42
-5.963471 8.826609 -2.225836 161 247 105
-0.447993 2.587112 -1.267071 241 187 225
-1.729382 8.067657 -0.279273 88 157 52
-1.747741 3.466676 0.805600 104 81 57
-3.136214 3.851739 0.192446 203 83 70
4.376256 18.683319 -7.248664 65 25 0
2.456618 11.064261 -2.487871 114 154 41
1.912223 9.300627 -1.306040 88 108 73
1.167158 8.782904 -1.336845 241 180 119
3.580500 6.518198 -3.711147 73 147 66
1.308599 8.455499 -0.979038 178 148 40
-5.307837 5.922714 -0.995684 107 248 76
-5.127691 6.413781 -0.923049 5 81 82
-3.027946 6.845197 -6.201611 254 250 254
1.675656 10.788348 4.750995 75 137 71
-5.935195 5.162151 -0.251374 251 220 187
-0.503513 3.258735 -2.932252 254 177 53
-2.415927 -0.801329 -1.929843 0 0 0
-6.059191 3.494334 -6.960152 67 139 44
-3.238085 7.105611 -5.722945 249 251 253
-6.923568 15.126185 -1.063023 200 138 83
-0.330747 4.261631 -1.794573 236 134 33
-5.443083 5.280573 -0.126796 104 70 100
-5.023933 9.736554 1.807792 95 164 73
-6.744337 13.848686 -0.942177 233 169 110
-1.929613 3.632452 0.487207 138 91 20
-5.077253 6.999242 -1.307325 2 82 108
-2.417807 4.717577 0.944041 90 70 201
-0.441262 5.098006 -3.059863 33 21 11
-1.721972 3.490172 0.787572 155 111 58
5.045773 17.487974 -6.186637 100 33 6
0.785141 6.800429 0.002393 185 95 32
-4.132345 9.709681 0.945544 75 141 46
-2.279831 3.591528 1.727530 133 0 0
-0.324746 5.432501 -3.287300 0 0 0
-5.083137 9.933140 1.718777 69 139 43
-1.143994 11.346285 -3.150291 35 25 10
-3.024210 3.587568 0.598167 205 12 8
1.547556 10.361642 1.679859 142 188 127
3.262864 13.595501 -4.008219 214 3 53
-3.972616 9.516922 -5.660403 93 154 50
-0.011714 9.422945 3.037585 99 169 75
-3.106335 14.187262 -7.544472 145 93 34
-0.817639 14.917402 -5.874841 216 205 153
1.598757 5.066136 -6.032922 91 164 65
-1.585970 8.060275 -1.913641 3 11 19
0.777803 6.627848 0.093334 146 49 30
-1.937005 4.536800 -5.806300 111 174 64
-2.990937 7.732375 -2.356696 15 36 45
-3.140015 3.899235 -0.970705 252 211 235
3.012179 14.684553 -4.779315 38 33 35
-2.224607 2.952037 1.551960 7 9 9
1.076985 8.748991 -1.334270 239 27 41
-1.450884 8.189137 -2.163748 95 167 67
-5.429293 3.622516 -2.154727 202 116 159
-2.413007 2.775897 2.579708 0 1 1
-7.424215 3.675298 -5.764248 100 172 77
-3.009650 3.399224 0.921667 250 252 249
2.105525 10.166393 -2.107025 153 117 16
-3.410048 14.401066 -7.648152 52 44 52
1.279445 8.688907 -1.097611 210 240 62
1.232844 8.564346 -1.183597 240 7 81
-3.283352 11.408434 4.893520 92 159 62
0.562751 6.577764 0.112038 247 252 105
-0.834088 9.200699 -0.493337 89 165 66
-3.070026 3.052743 1.167353 6 6 3
-3.380850 4.014333 -0.995035 252 253 250
-0.040602 3.838002 -2.319111 251 253 250
3.997641 18.010452 -6.928801 11 16 55
-2.996289 4.399094 -0.158984 217 135 192
-0.149370 3.308323 -2.854403 249 230 247
4.194729 8.465804 2.916072 86 155 75
1.250754 10.248725 2.160657 73 136 54
-2.968889 3.715312 -1.546484 250 223 247
-1.945537 3.591216 0.498051 167 117 32
-4.591653 6.064410 2.547706 221 129 204
-5.762627 8.995314 -7.974287 188 114 49
-4.188668 3.909120 -3.616784 0 0 0
1.460942 10.496271 -2.552391 4 168 212
-0.224446 3.311053 -2.410946 255 200 243
-6.595413 9.492209 0.577488 77 143 44
-8.567116 4.849501 -4.754924 83 147 71
-2.369254 4.552416 0.973949 2 219 242
1.489683 8.513918 -1.091936 245 152 127
-6.915466 9.754462 2.231435 106 171 88
1.034850 7.800024 -0.582981 254 225 141
-3.093477 3.883649 0.258414 234 145 131
-0.849328 14.984798 -5.639163 69 54 43
-5.161350 7.493344 2.385298 245 145 33
4.311364 15.853011 -5.454014 204 12 27
-2.121198 7.282800 1.022958 6 18 31
-10.735685 10.027805 -5.181450 0 0 0
-3.398285 13.669436 1.672136 134 174 45
1.479295 9.185014 -1.544308 194 254 86
-8.605365 4.297929 -3.979065 77 141 56
-3.181047 9.966278 2.392401 187 54 86
-1.251444 11.153672 -2.329888 5 0 0
-1.389258 10.367171 -1.752693 20 8 13
-3.472680 12.584879 0.879193 210 218 156
-3.453826 11.657614 2.083947 16 246 31
-2.468333 4.389179 -0.345223 0 0 0
-2.013187 4.855324 2.310802 116 54 7
-1.990044 4.805739 2.265721 206 135 41
-3.665005 21.396748 -1.520104 48 7 1
-3.345195 10.140478 2.417375 237 233 190
-0.796328 11.897884 -2.775907 16 7 18
-4.451101 3.126960 -4.083421 92 162 75
-3.274295 8.900875 2.684552 211 166 141
-8.925079 5.929767 -3.628537 46 112 41
0.566118 7.888674 1.061045 114 176 62
1.099561 9.162622 -1.580266 242 235 121
-8.886854 5.039073 -4.793926 60 124 48
-5.214261 5.607168 -0.744742 47 64 96
-3.427403 10.789846 2.356635 181 123 37
-0.457489 11.242846 -2.673549 184 188 158
-6.408347 6.161957 -0.721461 229 255 193
-3.343942 10.301009 2.366494 208 46 71
-5.397982 4.691835 -2.964058 232 130 110
-4.144129 6.532782 1.157919 235 182 98
-3.411739 9.522487 2.832417 254 173 53
-3.370202 9.299687 2.888537 255 196 71
4.582120 8.803490 2.412777 85 159 68
0.040072 9.831783 2.163214 104 171 71
-1.366801 7.518257 1.039208 167 93 19
-0.874881 10.160583 3.246760 66 136 40
-5.627928 7.876186 -1.925664 128 135 46
-2.644332 3.720013 -0.212565 176 152 97
-4.552100 4.277019 4.101785 142 144 144
-5.363603 5.663051 -4.355500 237 107 0
0.160506 4.925247 -3.201627 252 158 46
-5.261822 5.102039 -3.682326 255 218 220
-1.780391 7.064839 -6.413324 0 0 0
-5.291656 4.778226 -3.350421 254 215 222
0.417700 6.087250 -5.077301 253 195 140
-9.351806 4.659430 -4.886828 87 151 76
-1.083816 12.257095 -3.833630 225 207 118
2.500606 9.299972 1.213450 98 170 76
-3.002195 4.475825 1.298420 0 0 0
0.519823 4.629576 -3.618657 250 140 20
-5.087345 4.774481 -3.213853 247 217 250
-9.233492 4.675043 -4.753139 50 113 38
0.898632 5.251851 -4.598114 150 88 11
-4.919849 3.697523 0.726997 0 7 11
-9.861692 4.961969 -4.017045 100 167 71
-2.324449 4.521153 0.094468 131 145 161
0.415838 5.547584 -5.126327 183 112 25
-1.916414 4.921778 0.466329 207 26 125
-2.331215 4.207433 0.304820 131 130 122
-3.207826 12.345183 4.551491 68 138 53
-2.181254 4.016606 1.029493 163 25 7
0.119220 2.784973 -3.459759 83 143 70
-6.983253 5.700845 -4.879628 48 116 43
-0.670063 10.513375 2.921787 111 172 63
-0.365810 3.002115 -1.969135 244 45 103
-8.784969 4.894963 -4.934360 86 151 70
-0.256714 3.144422 -2.464353 251 205 239
-0.730330 13.880507 -2.668475 196 200 173
-3.199978 3.977523 -3.557536 75 145 52
-0.895323 10.662617 -2.421252 167 187 164
-4.376983 3.290658 -4.126408 70 140 50
-1.990171 4.774456 0.556902 203 41 95
-6.509773 5.397060 -4.373110 76 145 69
-3.199978 3.977523 -3.557536 75 145 52
0.718252 8.335607 1.848408 83 145 38
-4.896928 4.804323 -3.185658 228 142 223
-8.479402 13.328183 -5.372682 199 173 112
0.220324 8.439877 1.611592 61 135 33
-8.791901 4.579286 -4.493181 48 111 40
-2.901412 11.502468 -1.547284 202 113 50
-3.732390 2.879978 -4.201970 99 171 76
-2.224120 4.501685 -0.045475 200 227 228
-4.981319 3.244840 -4.137211 99 168 77
-1.536444 6.355949 1.156063 192 217 190
0.071950 8.716230 1.854539 102 170 70
-3.515765 9.889713 2.925026 136 62 69
-5.502447 5.088693 -0.203261 97 33 58
-9.002532 4.054004 -4.378449 71 140 52
4.016705 55.024193 -30.811415 156 193 142
-6.816991 5.837394 -0.299463 7 3 0
-1.655119 9.651461 -2.532398 197 230 172
1.907458 9.381248 1.124071 98 169 77
-2.799323 3.535700 1.718116 176 177 176
-9.737882 5.166339 -4.205997 84 148 70
-6.403827 3.483803 -4.015102 107 182 84
-10.058301 5.410942 -4.083758 54 117 41
-10.208098 4.970554 -4.002893 101 170 63
-2.201553 10.438531 2.505912 89 148 49
-1.505836 6.975604 1.049959 149 72 25
-8.541441 11.361836 5.649980 101 166 81
-5.916971 4.000650 -2.420032 60 135 55
-6.168594 6.108865 -0.736758 156 16 11
-2.095033 4.228179 0.808964 196 122 120
-4.926312 5.732994 -1.052070 22 79 36
-6.425496 6.027853 -1.058531 254 250 198
-9.903752 5.345282 -4.153295 80 143 69
-3.700608 5.992628 1.065205 212 167 94
-5.428258 5.141202 -0.067648 227 183 93
2.877557 8.458342 -0.339569 105 175 83
2.559228 8.274887 -0.736921 93 161 75
-4.736953 3.472088 0.790223 28 30 27
-2.409429 3.078199 2.433070 177 179 179
-6.615219 9.565934 0.925232 75 142 35
-2.414308 2.897728 2.561817 13 15 15
-5.497797 4.017587 -2.564806 72 147 47
-1.682575 5.884125 0.184533 168 236 42
-3.865963 5.925923 1.275364 177 214 172
-5.325577 4.187860 -2.436637 255 203 240
-5.372360 5.220910 -0.123537 93 80 65
-3.704538 3.735715 -3.222505 0 0 0
-3.818603 7.530048 -3.517276 87 154 50
-6.011839 9.866742 1.242948 61 130 39
-2.146592 5.753443 -0.262326 89 158 49
3.636985 9.572102 2.999907 101 169 80
-2.894642 5.225754 1.384491 55 33 129
-4.996178 3.789148 -3.940423 61 136 50
-4.721950 5.190608 -3.462342 253 248 245
0.216068 3.866627 -2.680465 213 106 19
-10.509031 5.840746 -3.482845 49 110 51
-5.671437 5.507224 -4.284284 249 118 29
-0.205218 3.244471 -2.731893 255 124 0
-0.687934 2.271983 -3.832817 104 169 83
-1.855657 5.496179 0.159616 45 149 185
0.239452 4.027720 -2.939249 206 112 31
-7.851848 10.100787 1.909467 60 125 40
1.389677 4.490314 -1.810740 68 135 40
-1.857908 5.244599 0.254307 71 97 177
-10.516243 5.756574 -3.397646 49 111 49
-0.346654 3.155972 -2.134645 254 212 246
-5.479587 5.407953 -4.098278 252 215 239
-3.347732 -0.649749 -1.813721 99 169 73
2.126396 9.373740 0.956064 112 182 86
-0.479990 2.799072 -2.036945 250 210 214
-5.158732 3.443075 -1.627841 245 238 243
-3.347731 -0.649748 -1.813721 101 167 67
-5.101892 4.895839 -3.387920 237 97 17
-0.460884 2.953545 -1.876855 249 220 244
-2.488325 3.877976 -0.141020 213 248 209
-5.392991 4.103841 -2.329771 250 211 172
-3.347730 -0.649749 -1.813722 225 141 58
-0.371028 2.740976 -3.649317 128 185 108
-7.107906 6.448169 -1.325217 0 0 0
-4.480443 6.200385 1.338531 0 0 0
1.247126 9.549276 0.152615 70 140 41
-3.347732 -0.649747 -1.813718 209 82 79
-3.347730 -0.649748 -1.813722 48 84 35
2.159847 6.217426 0.422897 50 119 43
-1.470648 7.850223 0.966629 214 162 27
2.175000 6.264842 0.432993 50 119 43
-1.873175 5.486036 0.084624 42 34 127
-4.414471 3.452724 -4.079611 69 139 45
-2.197455 4.428302 0.781914 185 117 96
1.372274 7.640093 -3.267168 253 253 250
-3.347732 -0.649747 -1.813721 0 3 1
-4.414471 3.452724 -4.079611 69 139 45
-2.492925 3.175760 0.249808 71 141 43
-3.347730 -0.649747 -1.813720 249 254 250
-5.556448 5.581171 -0.523248 81 2 8
-8.785537 6.585768 -3.872905 82 155 69
-5.511873 7.052328 -1.907701 237 240 82
-2.013187 3.966830 1.072343 210 75 40
1.519439 8.641718 -6.661152 179 114 37
-3.472494 10.951789 2.339464 237 99 66
0.713805 8.394682 1.866329 79 146 40
-3.260979 11.985221 5.517289 67 136 45
-2.163398 2.990560 1.770581 158 160 160
1.080745 8.872950 2.660391 94 169 69
-3.347730 -0.649748 -1.813721 247 180 251
-2.415927 -0.801329 -1.929843 204 16 29
-4.822112 3.540499 -4.068347 93 169 76
-3.722743 7.471384 -3.252936 102 170 69
-5.606997 4.545561 -2.724758 247 137 13
-0.402115 3.053612 -1.943989 249 171 197
1.941798 7.421165 1.639855 81 156 68
-2.513082 7.717717 -2.944696 97 164 63
0.233144 8.743254 1.761006 99 168 63
-10.401674 12.250296 6.668131 86 158 52
0.064979 9.960887 3.342641 71 140 47
3.410397 9.497471 2.628335 74 142 55
0.177611 10.307776 3.948219 90 159 76
-5.762471 5.145199 -4.079834 255 185 228
-2.689233 2.642811 2.450383 1 2 2
-5.495975 4.627510 -2.880709 244 139 13
-2.627692 3.368702 0.179985 90 32 1
0.768047 8.513615 1.998316 107 174 68
-2.812732 3.747877 -0.126042 112 84 50
-0.017134 10.493767 3.906765 92 161 72
-3.823911 8.044170 -6.463592 235 178 216
-5.357271 5.649287 -0.750922 214 242 94
2.116194 7.480365 -2.667486 109 170 59
-8.302018 10.194874 0.273345 76 137 55
-1.580180 7.079762 -0.471482 29 46 36
-5.550364 4.305203 0.425720 120 13 4
-5.059524 4.204601 -2.004832 248 244 250
2.102134 8.734833 2.913126 51 116 51
0.751051 8.050950 -2.199810 68 142 51
-4.492343 7.093857 0.900864 198 207 186
-5.765452 5.609360 -4.377814 251 206 226
-5.784252 5.357697 -0.342638 89 64 89
-5.749201 5.559695 -4.321090 251 206 226
-1.923096 8.867982 -2.024141 82 154 56
-6.032635 5.054962 -0.091093 13 8 7
-5.862054 5.002395 -3.946854 254 220 249
-2.466775 4.246443 1.284000 0 0 0
-1.313975 10.353587 -2.649185 198 201 179
-5.162682 4.339417 0.403875 153 84 24
-1.600544 7.320176 -0.011521 5 19 12
-4.880688 3.913336 0.871878 22 35 37
-2.227107 4.471945 0.678939 171 171 156
1.836380 5.829816 -5.030264 100 166 67
-5.604648 4.275387 0.526549 152 29 14
-1.636560 6.347757 0.878205 0 4 0
-2.327608 3.873929 0.943601 3 1 1
-2.381982 3.224598 2.282478 165 165 162
-5.370702 4.860394 -3.403975 245 148 61
1.040186 5.195985 -3.889041 71 151 58
-2.487581 3.651442 0.022652 77 14 8
-6.030733 9.565444 -8.320885 187 113 33
-0.177316 12.090124 4.904617 97 168 67
-4.530843 5.116698 -3.385647 222 102 13
-0.844516 2.381101 -1.289157 248 236 252
2.639596 8.756079 0.110145 76 143 50
-2.718392 5.415655 0.708428 71 144 56
-10.172838 5.389080 -3.411499 83 151 66
-5.009899 4.011689 0.649334 19 4 1
-2.149451 4.466681 0.559891 1 6 0
3.943672 9.154281 2.363083 98 169 77
-2.139274 4.603951 0.966889 0 4 4
-5.832886 10.615217 3.508959 101 163 85
-9.117612 5.044172 -4.826341 71 135 61
-0.915250 10.619041 -2.461035 119 160 105
-10.067837 7.736988 -0.497290 100 167 67
1.059305 4.642373 -1.833190 73 139 38
-6.554317 7.843855 -6.561327 241 147 48
-2.347663 5.937284 0.092810 1 0 0
-10.726266 5.685344 -3.456014 65 127 40
-5.883076 4.977205 0.003906 253 234 200
-0.305602 2.768012 -3.692829 45 97 25
-3.893757 8.440424 -6.794604 229 169 203
2.299204 8.498756 -0.516607 96 170 74
3.029691 9.668004 2.665799 95 163 79
1.285015 4.804441 -1.621154 72 140 38
1.394005 4.483127 -1.806461 68 135 40
-5.157187 4.883082 -3.013248 227 29 82
-4.184133 3.812509 -7.684001 85 152 70
-0.898496 2.683146 -2.066870 247 135 29
-4.487846 3.541133 -4.165384 69 139 45
-8.964082 6.572003 -2.819193 57 131 52
-6.694616 4.023460 -4.069815 98 168 70
-5.295442 4.150744 -2.302891 238 65 195
2.515059 8.346211 -0.659630 71 138 52
-2.622757 4.931514 0.947192 1 5 0
-2.687340 3.636662 1.781799 4 0 2
-2.196659 3.515532 1.231505 2 1 0
-0.244235 3.300648 -2.971881 248 22 76
-1.625952 5.914799 0.139113 80 146 51
-0.146604 3.381618 -2.487776 231 49 43
2.935628 4.408382 -6.194550 95 162 69
-0.326477 3.114547 -1.987013 251 234 250
-3.505881 4.796695 -1.352041 86 152 54
0.328952 6.160333 -4.964541 65 135 50
-0.242484 9.212626 2.189225 101 169 66
-4.705225 3.361229 -4.374768 66 136 49
2.815120 8.332377 -0.342510 106 175 83
-6.052413 7.690691 -6.236179 253 234 233
-0.082218 3.420877 -2.631755 236 113 25
-0.903863 2.346354 -1.337669 254 177 109
-5.325141 4.110225 -2.378465 242 210 231
-5.249274 6.342018 -1.479414 5 36 80
-5.392991 4.103841 -2.329771 254 208 154
-1.343588 3.129609 1.163493 78 37 8
-9.472239 6.166602 -3.170960 49 113 53
-2.359676 3.990308 0.494873 103 112 125
-5.078448 4.042629 0.905596 5 26 28
-2.322182 3.657028 1.631456 212 211 173
-2.173048 4.458424 0.754371 51 31 21
-2.064896 4.321833 0.844091 232 233 215
-4.151942 3.170679 -4.175492 71 140 48
-1.410758 9.553138 -1.868867 28 29 21
-3.783567 5.943007 1.283897 33 13 4
-8.783531 11.333630 6.176287 78 153 54
-1.228612 11.264729 -3.302445 113 67 14
-6.705413 4.537320 -3.784098 103 173 79
-5.388551 4.350177 -2.534910 244 154 110
0.374663 8.382553 1.474719 73 140 35
-5.220655 3.974864 -2.150536 240 209 240
0.426809 9.974751 2.427446 112 171 58
-7.141609 11.387180 3.778833 73 130 60
-5.967834 6.132547 -4.697282 255 178 234
0.171154 10.406294 3.977706 86 156 73
0.747365 8.002661 -2.192543 68 142 51
-0.525071 12.628836 -2.739059 207 227 185
-4.301613 6.760662 0.997461 168 103 81
-1.376763 3.560030 0.800874 130 108 72
-1.744275 8.955104 -2.104589 161 185 149
-5.168050 4.638854 0.244243 205 116 63
-1.037270 10.548060 -0.964418 145 189 140
3.732111 48.802055 -27.017616 173 199 157
2.106341 6.188385 0.415350 47 116 40
1.625649 38.400528 -20.225269 201 239 181
3.099842 9.608015 2.425570 70 138 54
-6.247372 9.037648 0.060576 83 144 44
-3.995801 8.476419 -0.553462 168 202 155
-7.356010 11.048590 3.708869 71 134 53
-4.792824 3.850424 0.878809 41 52 51
-5.295540 4.845252 -0.011482 252 165 111
1.059453 10.051095 2.216237 80 133 66
-9.122520 7.108141 -2.206031 98 171 69
-9.408127 6.191016 -3.236768 73 138 73
-2.674768 3.903882 1.510491 16 11 6
-5.272539 4.337590 0.266481 128 100 67
-7.693931 9.809845 1.945755 62 130 44
-7.155117 9.299298 -7.936016 253 167 49
-2.405118 3.827007 1.540398 193 191 186
0.587681 6.303049 -4.810143 64 134 51
-1.479686 9.436028 -2.170599 15 10 12
-5.452001 3.169522 -1.570493 244 236 241
-0.266530 10.784114 2.645020 101 170 65
-1.658868 6.014507 0.655825 0 2 0
0.649444 10.117080 2.733807 110 173 61
2.105209 7.815213 1.736608 76 151 67
-5.297642 4.604932 -2.814498 243 226 246
0.302270 6.081767 -5.274431 73 120 66
0.648124 4.299016 -3.552841 248 149 28
3.525491 10.165937 4.028603 57 125 53
-4.418268 10.197855 -8.184749 248 253 249
-0.671289 2.918420 -2.352246 251 252 242
-1.930301 5.102904 0.338230 23 215 236
-5.886068 4.724697 -0.176896 0 0 0
-6.092190 5.282040 -0.176743 242 224 190
0.383689 6.659431 -4.285261 66 137 34
-5.363306 4.424731 -2.737046 239 158 137
0.050946 3.646081 -3.048255 252 147 34
-1.526007 8.165750 -1.447144 6 16 20
1.795709 7.528480 1.237550 79 149 66
-5.106433 4.007294 -2.145866 249 147 45
-5.725553 5.637726 -4.192933 250 110 2
-5.540724 5.491936 -0.341695 228 12 8
-5.525871 5.558700 -4.098872 243 134 64
-5.300508 5.244825 -3.855768 253 227 246
2.404656 8.168079 -1.203115 93 160 67
-3.340986 4.022913 -3.652284 93 165 68
1.841066 6.256333 -0.093783 58 130 49
2.387413 8.133274 -1.192830 93 160 67
-5.287248 4.771685 0.042197 176 103 94
-5.421943 5.601379 -4.157985 248 110 14
-2.802643 3.514524 0.149515 123 84 52
-5.461780 3.936764 0.642581 1 1 3
-6.569851 9.425683 0.563754 79 145 45
2.701471 7.716805 -1.720295 90 165 69
-2.840708 2.605124 -4.656564 86 155 64
-2.231714 4.184558 0.802460 242 182 160
4.786459 8.040288 0.328090 89 155 63
-2.840708 2.605124 -4.656564 86 155 64
-1.909647 3.746498 1.264388 0 3 1
-10.059833 10.776372 5.083827 80 155 57
-2.533710 7.838821 -2.731006 80 147 43
-4.202192 3.266066 -4.188360 94 164 70
0.868515 8.091137 -1.923301 75 146 54
4.809760 7.810270 -0.328459 100 161 69
-7.106397 10.605927 -3.626471 87 157 61
-5.255602 3.574830 -1.787417 242 129 20
-5.991432 5.285037 -0.264873 198 223 150
-5.514967 5.497567 -3.809176 255 199 235
-9.915319 7.818565 -0.579028 74 144 50
-2.374293 5.212908 0.677469 13 0 0
-4.167815 6.677811 1.302814 215 90 17
-5.312869 5.052001 -3.224168 249 99 43
0.756200 11.132933 5.221378 80 147 72
-5.144696 4.227687 0.600636 40 1 0
-4.144146 6.733836 1.043513 223 60 8
-5.313929 5.050264 -3.209033 249 99 43
-9.320818 10.751413 5.958105 80 153 53
1.632234 5.975474 -0.310469 83 158 62
-4.226173 6.720386 1.039903 245 155 58
-5.160226 5.163670 -3.186536 238 144 210
-7.165467 9.260493 -7.790557 251 149 44
-3.763791 4.354028 -3.461135 99 166 71
-6.017922 6.230662 -4.761538 243 127 78
-3.773512 4.373037 -3.475543 99 166 71
2.057241 6.371335 0.364679 53 122 42
-5.068457 4.854421 -2.902083 246 171 217
1.428995 6.279985 -0.143328 51 126 41
0.674656 8.093505 -2.018798 101 172 80
-2.495184 2.889745 2.304221 0 0 0
-3.288406 11.764749 1.277833 135 179 41
-6.144163 7.493958 -1.902068 122 101 26
-2.550290 3.226646 0.256281 126 45 19
-1.196553 9.684081 1.962630 98 166 65
-2.052408 3.949289 1.030426 218 172 130
-1.239438 10.018162 2.060472 98 166 65
-5.846372 9.532701 -8.426421 173 97 44
-6.628372 8.175253 -2.469627 146 233 84
-5.830593 11.062349 3.576221 108 170 95
-5.801243 4.007164 0.753304 0 0 6
0.883098 8.244467 -1.353593 90 165 69
-2.058936 3.938676 1.021970 209 90 63
-3.624120 4.114359 -3.654315 74 146 49
-2.277210 3.807116 1.724704 226 212 178
-2.447595 3.129898 1.888886 177 177 177
-9.636615 10.908988 5.137720 71 141 43
-4.737663 8.976685 -0.098373 65 136 44
-6.201588 5.566346 -3.196183 57 37 28
-4.800201 3.840768 0.819807 17 29 32
-1.370106 2.791600 -1.879979 251 198 128
-4.931873 5.207257 -3.322240 251 253 250
-3.705754 5.849018 3.118002 11 22 21
-1.425224 3.028479 1.218288 70 49 26
-10.379815 7.736498 -0.349736 95 163 73
-3.698906 4.077602 -3.605520 95 171 74
-6.153826 4.443289 -6.781812 73 150 65
-0.023162 8.966013 1.747407 94 164 66
-2.504133 3.173993 1.926354 1 1 1
-8.933744 5.856903 -3.645217 45 111 40
-1.260180 3.751497 0.629814 230 226 168
-3.312863 6.900640 2.569725 252 250 199
-1.167909 12.027992 -3.522496 115 59 10
-4.455726 3.658464 -1.689172 244 184 227
-4.127681 6.343163 1.179843 109 87 80
-4.606965 3.736709 0.875208 161 162 161
-5.721292 5.501684 -3.998744 253 106 0
-2.507699 7.685501 -2.939040 100 166 67
-5.222342 4.275788 -2.480995 248 217 253
-6.761885 7.294307 -1.335932 222 240 164
-0.224425 4.430530 -1.639652 0 0 0
-5.775684 5.252396 -0.290005 73 64 94
-4.920682 4.246661 -2.081166 241 217 235
-6.569405 9.233673 -2.784813 177 225 95
-5.452824 4.747488 -3.026292 254 216 242
-5.141979 4.046463 0.492987 146 19 0
-5.124063 4.609508 -2.773226 254 223 250
-1.048597 12.408018 -3.952118 217 219 148
-2.442224 4.244184 1.301570 216 157 154
-2.684274 3.763081 1.602672 2 5 5
-1.053257 12.389586 -3.932627 217 219 148
-6.996706 12.904888 -5.308181 69 17 0
4.682779 7.785637 0.002049 87 160 58
-5.680408 10.957035 3.112720 103 165 92
-2.214561 3.913533 0.874997 46 68 113
-1.047680 2.862137 -2.582728 247 248 251
-10.090401 10.533526 4.700290 83 151 69
-1.375287 3.059811 1.072240 235 131 3
-2.059218 3.232535 -4.062042 73 140 47
-0.215591 6.400247 -4.758478 72 139 41
-5.090827 4.180544 -2.209954 255 188 115
-4.031416 6.048720 1.241709 165 202 144
-0.102633 3.574249 -2.483922 232 87 1
-2.563860 3.516631 0.032365 61 47 27
-5.341504 5.191539 -3.490974 241 120 136
-7.648209 11.240073 -4.445626 0 0 0
-2.007475 4.426673 0.830569 50 73 58
-2.127498 4.231337 0.824164 164 163 127
-0.928535 2.326277 -1.536095 151 85 124
-4.911635 9.534024 0.432142 66 131 46
0.382939 5.838321 -5.403670 56 103 50
-1.990881 3.725174 1.233070 0 0 1
-6.573803 4.220857 -4.110949 50 125 41
-5.349359 5.493885 -3.859059 135 16 2
-4.419288 5.899183 -3.942720 250 254 246
-2.256788 3.736590 1.541406 88 51 58
-5.217252 5.501382 -3.831532 229 101 1
-4.208461 10.425009 -8.651278 252 252 246
-4.505659 5.832057 -4.434257 253 163 66
-5.458865 5.941309 -0.960298 81 136 68
-6.516608 10.347290 2.598290 92 164 68
2.046797 8.640670 -0.271190 66 136 50
-7.741174 9.907844 1.973022 64 132 47
2.739632 11.782970 -5.007621 0 0 0
-5.153083 6.255389 -4.739219 211 111 20
-1.911151 3.689957 1.178098 231 236 232
-4.628177 3.405613 0.737033 34 31 31
-0.726522 11.811713 -2.890465 5 10 18
-6.488322 6.069670 -4.819650 80 156 69
1.202101 6.963006 -3.082288 0 0 0
-2.381040 3.053447 2.415372 155 154 152
-5.622773 5.491718 -3.887335 249 225 226
-5.081052 3.887732 0.263483 246 169 121
-0.867109 15.498695 -6.223864 34 15 1
-0.194650 5.206882 -2.888095 0 0 0
-10.010992 7.738963 -1.716672 100 171 70
-5.842057 5.000964 -2.849553 244 251 235
-4.890043 4.531660 0.475387 0 0 1
-4.926118 3.858952 -1.741015 93 161 48
-3.484534 6.630003 2.693915 75 59 39
0.388954 6.022312 -5.267191 65 110 56
0.399878 5.773246 -2.751362 0 0 0
0.399791 6.697745 -4.306918 68 140 36
1.644040 5.168374 -1.338381 100 168 68
-5.472696 4.916633 -3.264608 250 157 64
-5.755645 7.866703 -1.863002 2 14 29
-10.312240 8.987658 1.658549 84 158 62
-5.054883 4.520875 -2.628211 250 135 14
-5.257866 3.960376 -1.991012 255 210 245
-5.017335 4.157914 0.525674 40 7 0
2.552609 8.036433 -1.119433 92 161 72
-7.777276 8.844370 -0.100542 116 173 68
-5.559377 5.568887 -3.929949 235 116 120
-5.084788 4.908887 -3.026893 251 229 247
-5.831296 10.965018 3.682067 81 143 66
0.702805 8.035251 -2.120633 68 143 55
-1.065633 2.690430 -2.287978 245 134 0
-2.598237 3.206374 0.205129 67 52 29
-2.390898 4.122363 1.361994 79 22 19
-2.042986 4.456048 0.745920 33 44 24
-5.490450 3.658166 0.714079 0 0 0
-1.904758 3.698258 1.207609 3 2 0
-5.196605 4.603896 0.154999 238 192 102
2.176611 11.344876 -7.677446 73 147 56
-5.695688 5.397201 -3.819180 241 89 5
-1.407182 3.142234 1.143928 93 37 13
-4.683743 7.456257 -5.853799 229 108 2
-5.349727 5.496575 -3.863645 135 16 2
-5.712276 4.582875 -3.710510 64 138 45
-6.094993 5.371243 -2.948201 243 189 153
0.789572 8.026791 -2.029490 101 172 80
-6.071453 9.569550 1.014566 73 142 44
-0.845671 3.369711 -3.070750 252 30 192
-2.819368 5.536366 0.804872 85 152 54
-0.298378 4.346142 -1.756189 247 194 188
-5.997859 5.309154 -3.020560 245 191 79
-5.022382 4.227038 0.607222 19 18 12
-5.231590 3.756846 0.519068 25 2 0
-2.334577 11.290761 5.189073 102 171 68
-2.411899 3.756338 1.474631 156 140 154
0.759317 7.769971 -2.467390 90 164 73
-2.016345 4.158827 0.953663 225 71 56
-2.111488 3.988950 0.954908 188 89 77
-5.355772 8.246233 -2.572564 31 79 14
-5.354381 5.417370 -3.701503 243 230 246
1.561004 4.550365 -1.737114 70 142 45
0.695583 6.568337 -3.669954 255 134 52
3.180351 10.399907 4.629327 85 155 61
-8.381286 4.902139 -3.517913 53 120 47
-5.229602 5.071970 -3.254435 254 219 242
-2.262598 3.828724 1.066007 240 33 30
-6.656448 6.540915 -1.070470 255 231 127
-6.234490 9.222325 -0.001507 107 168 68
-2.056729 3.943935 1.009336 195 166 124
-8.305247 4.763369 -6.192579 94 165 64
-6.214658 6.547865 -4.922916 251 143 39
0.661505 6.493087 -3.755105 0 0 0
-1.058633 4.113987 0.738449 1 0 0
1.109207 10.214811 3.089324 54 129 45
-0.291482 4.953907 -2.649375 0 0 0
-1.918454 4.076925 1.453806 214 209 206
-5.341143 4.762518 -3.014837 216 66 141
-1.691231 3.384135 1.073087 215 220 219
-9.777050 7.748902 -0.772552 91 162 69
-7.865771 8.941505 0.164428 82 143 43
-8.203041 9.763735 1.787661 90 160 64
4.175084 9.481955 2.485845 97 168 76
-5.705149 4.574716 -3.702048 64 138 45
-3.666603 7.178261 2.751670 253 231 208
4.579773 9.140639 3.087320 56 121 45
-0.073693 5.194696 -3.221514 247 94 0
2.456179 6.909041 0.173022 79 149 53
-2.000660 4.324857 0.921836 223 220 172
-2.834687 11.230689 5.481456 98 167 58
-6.486191 10.386739 -3.250255 89 12 41
-7.649612 10.091211 2.150399 62 131 40
-0.905273 2.802983 -2.269989 0 4 0
-0.019831 5.464404 -3.695692 0 2 0
-0.256387 4.440344 -0.723946 250 181 227
-0.991729 2.742482 -2.104686 253 249 251
0.806963 10.203101 2.126285 70 138 54
-2.247278 5.244297 0.724822 1 0 0
-0.459067 4.805959 -2.462299 0 0 0
-6.574299 8.912971 -2.717308 42 42 3
-5.365607 10.053502 1.679804 65 134 43
0.750179 6.622942 -4.029430 253 217 251
0.073103 3.677621 -3.774037 245 140 29
-2.131918 4.156367 0.894194 220 113 95
-0.340604 4.280710 -4.109774 252 219 171
-6.942139 10.612288 2.332124 69 141 44
-1.679124 3.655864 1.915664 185 94 18
-2.518451 3.279241 1.866608 117 11 6
-6.736547 10.488280 -3.579161 80 14 33
-4.478001 9.569878 1.511798 96 166 72
-8.071794 4.682545 -5.936252 63 134 42
0.611360 5.797776 -2.872470 0 0 0
-6.283417 6.001097 -0.881119 255 231 158
2.228602 8.180950 -1.710185 70 137 42
1.363852 9.291646 -3.484269 224 179 209
0.212031 5.631980 -5.533131 71 142 50
-5.746526 10.798224 3.331151 79 142 67
0.286482 5.480403 -2.399759 249 134 11
-3.338810 6.346148 0.261724 24 25 15
0.249275 9.146867 -0.138587 100 169 62
1.885353 4.997497 -1.278159 100 169 81
-0.065325 5.117257 -1.873793 249 140 12
1.153058 6.011981 -4.987987 65 120 45
1.679180 9.061253 -5.389458 250 226 242
0.919922 10.057897 0.950293 68 136 34
-3.545148 16.289818 0.829141 199 3 38
0.920162 10.091330 0.940681 68 136 34
-2.934827 3.987402 1.839635 100 158 90
-1.165985 4.897102 -0.001608 33 14 2
2.019607 4.208238 -5.655803 81 145 69
-4.043852 14.362049 1.541929 73 138 42
-1.351915 4.074389 1.982356 0 0 0
-0.294488 4.020050 -1.364519 250 203 230
-1.301682 10.574292 2.639103 96 165 67
-6.292433 4.914206 -3.739030 54 127 42
-0.533210 8.022325 -2.321751 104 169 71
-5.016205 10.243820 1.708552 100 171 70
-1.018408 8.312199 -2.026092 98 168 74
-3.760426 10.938185 0.281565 100 165 59
-1.206185 4.978312 -5.513895 80 145 39
-1.784048 10.935870 -3.770624 4 7 3
-7.493333 6.286863 -4.402343 60 128 57
-5.365607 10.053502 1.679804 65 134 43
-1.556081 4.641892 -5.798835 109 172 66
-9.221571 13.595015 2.481203 55 124 44
-3.459403 9.149774 -0.416505 82 155 51
-6.456259 10.326393 2.634887 89 161 65
-2.364081 5.564241 -1.199716 113 182 211
-5.814551 7.946186 -1.710511 8 51 75
0.761743 6.216145 -3.584146 235 136 186
1.280025 7.797016 -3.542705 250 146 41
-3.516547 10.881761 3.102679 101 171 74
-9.271755 3.154930 -5.684018 253 236 255
0.391142 5.772235 -4.123855 245 235 236
-3.289454 9.900468 2.280654 186 64 92
-3.504226 11.806488 1.221777 249 235 219
-6.342851 10.052136 -3.163110 72 14 40
-3.318082 6.448734 -4.232561 248 145 60
2.952951 7.259331 -9.643070 92 167 72
-0.276877 4.612969 -2.124240 237 133 12
-2.552705 4.021834 -6.241431 71 139 54
-5.061041 3.424677 -7.076231 92 141 63
-4.820156 5.384645 -0.571755 49 45 77
-5.791014 10.919281 3.604343 101 172 71
-7.491873 10.701199 4.270899 95 163 79
-4.220902 11.082111 -0.223339 74 140 39
-0.201753 6.102340 -3.701234 10 8 17
1.769357 8.670182 -6.297901 255 172 57
-1.412020 3.431081 0.751044 59 49 63
-6.942139 10.612288 2.332124 69 141 44
-0.205536 4.807324 -1.790719 248 131 6
-2.288227 4.362212 1.066627 51 144 201
-7.669152 3.552655 -6.759643 91 160 70
-1.412603 3.312955 0.812350 172 145 49
0.902884 9.027448 -4.023788 253 157 46
-5.590887 6.580328 -1.448913 32 89 31
-0.332961 5.005398 -2.665950 0 0 0
0.972928 10.684505 5.108411 66 134 61
4.791586 7.288834 -2.086794 65 130 36
-6.415873 6.265254 -0.983283 124 63 93
2.043399 4.011611 -6.868789 93 160 66
-2.415927 -0.801329 -1.929843 0 0 0
2.441249 13.681346 -6.662748 252 247 251
0.376208 5.214223 -2.573541 243 139 195
-9.487218 9.050499 1.118230 58 130 51
-3.445633 4.306347 -5.925651 70 140 42
-5.593499 5.538318 -0.027591 91 158 52
-3.513273 8.463379 3.123715 132 163 110
-4.543408 6.568101 1.184901 162 125 83
-2.030584 4.770750 0.493030 65 8 23
-5.222681 4.020565 0.463675 232 104 42
-7.773873 10.848665 4.931906 104 170 82
-2.011288 4.050649 0.933845 161 90 64
1.891113 9.548340 -5.256861 248 146 33
-3.192606 18.831127 0.362889 60 25 56
-1.567655 6.324275 -2.296398 0 0 0
-3.378100 11.347377 2.104026 31 245 14
-3.347730 -0.649748 -1.813722 69 142 40
-3.619614 11.530149 1.764958 204 193 77
-1.627345 4.104924 1.550930 143 21 0
-1.620762 4.254669 1.493556 135 82 19
-3.518217 13.769635 0.565463 1 64 197
-4.012174 11.326734 1.189950 42 43 20
-0.717026 8.172858 -2.215240 74 140 39
-0.874664 8.112759 -2.181735 102 168 67
-3.290689 10.296855 2.307773 254 192 138
-3.753174 10.909063 3.538008 65 136 46
-3.465187 10.124777 2.575141 112 35 47
-1.840842 7.344623 0.793888 104 154 83
-4.141505 11.155862 3.886843 106 175 84
-4.126016 11.108169 3.893880 106 175 84
-3.272778 9.496686 2.646201 253 243 162
-4.188233 6.497029 1.453909 2 3 0
-3.292011 9.425731 2.746623 144 90 95
-3.399286 9.176011 3.006624 64 36 43
-3.322004 9.099126 2.936245 227 145 89
-5.663426 8.331883 -1.955746 97 159 59
-10.033781 3.388907 -5.802269 252 234 248
-3.395487 8.398181 3.167572 106 55 47
-6.520657 4.670950 -6.909179 50 127 42
-7.272338 11.154123 6.241181 94 147 87
-7.551297 10.918315 5.998653 54 121 45
-7.631822 10.993530 6.018901 54 121 45
-3.347732 -0.649747 -1.813721 39 20 6
-2.162003 4.572803 0.938176 220 69 58
-3.633144 3.984372 0.237424 153 187 137
-3.598909 4.312690 -0.389682 251 253 250
-4.711330 7.534761 1.185089 219 197 79
-2.415927 -0.801329 -1.929843 207 108 38
2.056617 6.301440 -4.087031 53 128 42
-5.424831 3.512982 0.031880 69 55 55
-3.654598 17.845306 -0.096560 44 77 31
1.105726 10.859048 2.655770 63 131 46
-5.648252 4.309998 -0.375424 127 31 41
-20.120230 15.291286 -4.655438 90 151 40
-3.176740 7.998019 0.065886 185 209 189
1.278809 10.638080 2.690617 108 169 85
-1.815903 4.659555 -0.615520 236 222 127
-16.456369 14.190363 -4.326324 93 166 62
2.799727 5.582748 -4.602362 51 125 44
-5.277513 5.050762 -0.559741 67 21 51
-2.975404 2.946315 0.696299 152 154 152
-1.056092 4.734554 -2.195397 238 133 19
1.727245 10.422917 1.797502 129 184 111
-5.070021 5.332167 -0.718275 57 48 75
-2.328307 3.284124 0.688001 139 139 139
0.528857 5.740206 -2.619237 255 183 218
3.477588 6.510890 -3.509842 78 150 73
-5.115057 5.334020 -0.748981 253 209 107
-2.809592 3.383279 0.921650 142 144 142
3.477588 6.510890 -3.509842 78 150 73
-6.243176 5.812656 -0.860928 218 55 80
-2.668575 3.756057 0.951398 4 5 4
2.283427 10.291154 -5.396894 249 151 56
-2.415927 -0.801329 -1.929843 189 35 3
-3.318991 5.265407 -3.568740 236 139 88
-5.496876 7.000559 -0.891872 118 94 86
-2.647156 4.167160 0.188139 224 13 0
-2.912339 3.195404 2.442717 5 6 5
-2.415927 -0.801329 -1.929843 238 71 2
-3.318991 5.265407 -3.568740 236 139 88
-5.711905 6.762459 -1.207089 14 92 103
-2.419836 4.380461 -0.584921 4 3 2
-2.600658 4.325796 1.904036 86 54 48
-2.415927 -0.801329 -1.929843 223 227 206
-5.886984 7.303888 -1.726766 41 176 13
-2.484447 4.415996 -0.719051 243 209 172
-3.452891 5.742248 1.452043 16 21 25
-2.415927 -0.801329 -1.929843 18 20 22
-1.111929 8.066186 -2.013573 71 138 45
-2.391574 2.274852 0.039224 33 34 64
-3.462621 16.098888 0.696327 189 5 23
-2.302612 2.308511 -0.066753 169 170 129
-4.752032 3.622441 0.288794 13 18 22
-5.185875 6.462852 -0.983476 21 101 124
0.964589 6.536189 -3.968028 52 127 39
-5.034142 3.657810 0.224425 150 13 0
3.757795 7.876123 -6.521322 99 171 76
-4.797315 9.943394 -0.561118 10 21 10
2.343928 8.187407 -1.887633 72 137 44
-1.606955 4.992814 0.199621 29 16 11
-3.604848 10.624554 2.658303 211 230 198
-1.559359 3.824136 1.690516 100 66 18
3.927099 6.093045 -3.896051 48 128 40
-1.595422 5.179577 0.076345 33 16 7
-5.521450 4.489430 0.111897 254 241 162
-2.415927 -0.801329 -1.929843 180 92 36
2.725168 10.832402 3.365082 68 138 39
-6.535721 6.533543 -1.020782 74 53 73
2.723351 10.844294 3.368747 68 138 39
-5.770590 7.293242 -1.219131 126 222 137
0.619370 5.937571 -2.945485 251 133 35
-2.415927 -0.801329 -1.929843 230 216 139
2.892070 10.518001 3.306480 91 163 64
-3.755214 13.668582 -1.884206 0 0 0
-2.508034 4.475877 -0.564789 206 80 63
5.142484 8.090097 -1.350196 65 132 37
-5.792925 7.271174 -1.352347 31 38 97
-2.544177 4.445557 -0.651849 206 80 63
-5.450905 3.659600 0.668578 0 0 1
-2.415927 -0.801329 -1.929843 224 226 211
-3.075398 4.517667 0.964246 0 0 0
-5.182643 6.467039 -1.445300 4 95 90
-16.314617 14.224386 -2.624544 106 173 62
-5.590394 3.797730 0.648524 0 0 1
-2.147702 3.791483 0.936596 5 0 11
-6.033306 8.297670 -3.864737 0 0 0
1.179270 8.541962 -6.061323 74 144 46
-5.128125 3.885697 0.629416 248 45 0
-2.415927 -0.801329 -1.929843 1 1 2
-3.491990 10.107393 2.664525 125 55 45
-5.871488 7.934455 -1.784989 0 75 113
-3.027946 6.845197 -6.201611 254 250 254
-5.018507 4.010699 -0.092059 99 29 23
-3.406750 19.280134 0.337549 74 41 3
